ply
format ascii 1.0
element face 0
property list uchar int vertex_indices
element vertex 240
property float x
property float y
property float z
property uchar diffuse_red
property uchar diffuse_green
property uchar diffuse_blue
end_header
2.519105e-01 2.296315e-01 3.000745e+00 141 171 199
2.519105e-01 2.296315e-01 3.000745e+00 141 171 199
5.294998e-01 -2.776941e-01 3.001217e+00 77 58 51
-4.492227e-01 -2.814051e-01 3.001021e+00 68 48 25
3.367041e-01 -2.397067e-01 3.000483e+00 205 217 229
-4.113498e-02 -2.499128e-01 3.000047e+00 214 205 154
-7.742101e-01 -1.068878e-01 3.002639e+00 197 208 225
-1.213940e-01 2.531812e-01 3.000646e+00 121 154 196
-2.045311e-01 -2.789382e-01 3.000287e+00 139 93 42
-7.204671e-01 -2.400921e-01 3.002335e+00 45 41 31
7.661341e-01 -8.078697e-02 3.002382e+00 118 85 31
-1.231890e-01 -7.138581e-02 3.000041e+00 123 173 208
1.406195e-01 -2.853272e-01 3.000152e+00 224 206 162
-2.607070e-01 -3.111362e-01 3.000459e+00 127 96 52
-2.607070e-01 -3.111362e-01 3.000459e+00 127 96 52
-3.095510e-01 -2.423264e-01 3.000494e+00 223 223 230
6.460442e-01 -1.652368e-01 3.001692e+00 219 227 229
-6.132547e-01 9.378452e-03 3.001775e+00 124 174 216
6.826741e-01 -2.237860e-01 3.001912e+00 33 25 6
4.354632e-01 -2.016484e-01 3.000770e+00 212 221 230
-8.060798e-01 -1.852640e-01 3.002842e+00 218 227 232
5.189243e-01 -1.541226e-01 3.001082e+00 127 118 121
-5.159934e-01 -3.839379e-01 3.001474e+00 77 80 40
-1.756168e-01 -3.695959e-01 3.000397e+00 234 201 135
4.354490e-01 -3.304598e-01 3.000923e+00 58 50 30
2.660470e-01 -3.285638e-01 3.000432e+00 43 31 22
7.985203e-02 -3.183975e-01 3.000155e+00 242 203 145
-1.515427e-01 -2.603892e-01 3.000170e+00 89 59 35
5.259516e-01 -2.346962e-01 3.001157e+00 69 47 30
5.259516e-01 -2.346962e-01 3.001157e+00 69 47 30
6.806634e-01 -2.204430e-01 3.001899e+00 56 47 28
4.356339e-01 -2.069934e-01 3.000774e+00 214 223 230
-3.966474e-01 -1.828365e-01 3.000729e+00 186 210 231
5.181445e-01 -1.543451e-01 3.001078e+00 121 113 116
5.181445e-01 -1.543451e-01 3.001078e+00 121 113 116
-7.491327e-01 -1.283762e-01 3.002476e+00 211 222 234
-8.155678e-01 1.111483e-01 3.003176e+00 133 169 209
2.462263e-01 -3.255514e-01 3.000385e+00 42 36 31
-1.382564e-01 -3.264252e-01 3.000255e+00 84 59 33
-1.382564e-01 -3.264252e-01 3.000255e+00 84 59 33
6.253981e-01 -3.116671e-01 3.001705e+00 41 32 28
-3.179780e-01 -2.841441e-01 3.000571e+00 210 222 210
-3.179780e-01 -2.841441e-01 3.000571e+00 210 222 210
6.382313e-01 -2.705024e-01 3.001719e+00 179 178 175
8.174145e-01 -2.473070e-01 3.002711e+00 46 36 12
-2.711999e-01 -2.468825e-01 3.000395e+00 219 226 231
4.333576e-01 -2.174603e-01 3.000774e+00 215 222 230
-7.514223e-01 -1.319410e-01 3.002489e+00 217 228 239
-5.157324e-01 -1.293146e-01 3.001205e+00 61 36 23
7.882597e-01 -1.201664e-01 3.002502e+00 72 53 25
-8.406902e-01 -9.142318e-02 3.003084e+00 191 207 225
-3.328239e-01 -3.474161e-01 3.000720e+00 69 67 31
-2.434052e-01 -3.356917e-01 3.000462e+00 79 50 13
-5.290992e-01 -3.381463e-01 3.001447e+00 86 98 46
2.795203e-01 -3.287902e-01 3.000462e+00 46 34 20
5.559560e-01 -3.212130e-01 3.001392e+00 27 17 6
8.254825e-01 -3.129067e-01 3.002821e+00 24 17 6
6.933169e-01 -3.148269e-01 3.002060e+00 50 42 30
-4.027953e-01 -3.096234e-01 3.000886e+00 22 4 0
-6.547997e-01 -3.040658e-01 3.002026e+00 48 46 29
-1.012954e-01 -2.927869e-01 3.000153e+00 239 218 160
7.403521e-01 -2.827029e-01 3.002283e+00 60 57 36
3.899715e-02 -2.691741e-01 3.000061e+00 218 199 156
3.899715e-02 -2.691741e-01 3.000061e+00 218 199 156
4.610581e-01 -2.434726e-01 3.000900e+00 118 103 99
8.979390e-02 -2.064943e-01 3.000014e+00 49 50 25
-3.866872e-01 -1.936892e-01 3.000699e+00 206 223 230
7.930406e-01 -1.590466e-01 3.002528e+00 59 39 15
-7.948715e-01 -1.336817e-01 3.002766e+00 159 136 135
-7.948715e-01 -1.336817e-01 3.002766e+00 159 136 135
5.495452e-01 -1.257359e-01 3.001215e+00 220 225 227
6.972870e-01 -3.873925e-02 3.002009e+00 228 225 233
-5.489852e-01 -2.963259e-02 3.001404e+00 118 171 216
7.389853e-01 -2.487795e-02 3.002262e+00 113 81 49
-8.244248e-01 2.468466e-02 3.003084e+00 170 194 227
7.519691e-01 -3.765655e-01 3.002477e+00 70 80 16
6.744739e-02 -3.578823e-01 3.000225e+00 91 94 33
-3.326007e-01 -3.467476e-01 3.000718e+00 67 65 30
-1.984269e-01 -3.336760e-01 3.000365e+00 70 34 3
6.576513e-04 -3.319830e-01 3.000162e+00 189 177 142
7.464369e-01 -3.295176e-01 3.002374e+00 10 9 4
7.464369e-01 -3.295176e-01 3.002374e+00 10 9 4
-8.608786e-01 -3.219818e-01 3.003303e+00 110 124 58
1.999622e-01 -3.142919e-01 3.000281e+00 84 66 49
8.251473e-01 -3.126278e-01 3.002819e+00 23 16 5
8.251473e-01 -3.126278e-01 3.002819e+00 23 16 5
4.420039e-01 -3.085155e-01 3.000911e+00 56 41 27
3.193728e-01 -3.075820e-01 3.000525e+00 224 220 210
-7.037527e-01 -3.031483e-01 3.002300e+00 27 25 10
2.284555e-01 -2.980924e-01 3.000304e+00 215 218 232
-6.206147e-02 -2.953448e-01 3.000123e+00 219 201 155
-6.439697e-01 -2.900761e-01 3.001950e+00 37 32 26
7.921866e-01 -2.866346e-01 3.002591e+00 204 198 195
7.921866e-01 -2.866346e-01 3.002591e+00 204 198 195
8.381679e-01 -2.837654e-01 3.002870e+00 77 71 43
4.148570e-01 -2.806017e-01 3.000776e+00 210 218 222
-2.817357e-01 -2.814613e-01 3.000466e+00 61 45 38
8.618670e-01 -2.663359e-01 3.003005e+00 30 21 9
4.168420e-01 -2.530365e-01 3.000749e+00 22 27 34
5.776777e-01 -2.510346e-01 3.001404e+00 50 34 20
-1.854250e-01 -2.225946e-01 3.000183e+00 198 216 230
-7.864257e-01 -2.203499e-01 3.002729e+00 57 49 29
-2.131358e-01 -2.091280e-01 3.000224e+00 30 54 64
-2.131358e-01 -2.091280e-01 3.000224e+00 30 54 64
-2.577153e-01 -2.088575e-01 3.000324e+00 65 72 79
6.347042e-01 -1.999840e-01 3.001646e+00 223 222 227
-3.870218e-01 -1.948027e-01 3.000701e+00 208 224 228
-7.578516e-01 -1.494860e-01 3.002529e+00 232 231 229
5.153473e-01 -1.375314e-01 3.001064e+00 115 113 120
5.153473e-01 -1.375314e-01 3.001064e+00 115 113 120
-5.846395e-01 -3.353194e-02 3.001580e+00 47 42 48
-5.846395e-01 -3.353194e-02 3.001580e+00 47 42 48
8.463692e-01 -2.382470e-02 3.002932e+00 220 219 230
7.404892e-01 -2.242818e-02 3.002273e+00 120 87 56
-8.065915e-01 -1.706974e-03 3.002930e+00 80 98 128
-7.079608e-01 -4.118279e-01 3.002502e+00 58 61 17
-6.330523e-01 -3.967763e-01 3.002064e+00 46 59 17
8.745571e-01 -3.549762e-01 3.003181e+00 103 113 52
7.362044e-01 -3.535883e-01 3.002351e+00 107 115 69
5.058848e-01 -3.478185e-01 3.001222e+00 104 108 64
-2.635060e-01 -3.448313e-01 3.000527e+00 93 72 31
3.241266e-01 -3.410016e-01 3.000595e+00 74 64 34
8.342227e-01 -3.358785e-01 3.002903e+00 34 29 22
3.510088e-01 -3.204574e-01 3.000634e+00 53 29 3
4.217911e-01 -3.168626e-01 3.000853e+00 154 137 110
4.217911e-01 -3.168626e-01 3.000853e+00 154 137 110
-2.931105e-01 -3.188863e-01 3.000555e+00 24 3 1
-8.543214e-01 -3.026363e-01 3.003238e+00 27 23 17
-5.857746e-01 -2.841403e-01 3.001640e+00 33 32 14
-5.455950e-01 -2.807787e-01 3.001440e+00 28 27 11
5.403113e-01 -2.791469e-01 3.001265e+00 48 29 21
-5.147104e-01 -2.579859e-01 3.001271e+00 33 25 7
7.413775e-01 -2.540640e-01 3.002262e+00 149 141 105
-1.615001e-01 -2.424645e-01 3.000164e+00 80 62 51
5.017730e-01 -2.358571e-01 3.001055e+00 62 43 33
1.062703e-01 -2.342716e-01 3.000053e+00 226 208 167
5.311834e-01 -2.281266e-01 3.001174e+00 70 50 30
5.311834e-01 -2.281266e-01 3.001174e+00 70 50 30
-8.100192e-01 -2.164066e-01 3.002879e+00 236 229 229
6.705389e-01 -1.879669e-01 3.001828e+00 231 224 227
9.396350e-02 -1.845092e-01 3.000001e+00 39 37 12
-8.445172e-01 -1.808805e-01 3.003096e+00 225 225 229
-8.445172e-01 -1.808805e-01 3.003096e+00 225 225 229
5.601354e-02 -1.666431e-01 2.999969e+00 226 214 174
5.423244e-01 -1.559097e-01 3.001185e+00 127 115 117
-5.359271e-01 -8.851722e-02 3.001306e+00 87 71 82
-5.392523e-01 -5.829454e-02 3.001336e+00 77 98 121
8.679275e-01 -4.415475e-02 3.003054e+00 210 219 236
-6.277137e-01 -4.144054e-02 3.001803e+00 65 75 81
8.006015e-01 -2.272547e-03 3.002662e+00 207 214 229
-8.510440e-01 1.165499e-02 3.003248e+00 143 167 205
-8.173591e-01 9.583847e-02 3.003157e+00 153 167 196
1.573967e-01 1.302187e-01 3.000310e+00 166 178 196
1.443869e-01 -4.095860e-01 3.000404e+00 69 77 26
-1.814176e-01 -4.036340e-01 3.000485e+00 87 80 29
3.759558e-01 -3.926642e-01 3.000849e+00 101 93 41
4.076474e-01 -3.901154e-01 3.000944e+00 239 210 152
-7.783151e-01 -3.798877e-01 3.002858e+00 63 72 25
-7.783151e-01 -3.798877e-01 3.002858e+00 63 72 25
1.204388e-01 -3.701414e-01 3.000288e+00 105 112 52
3.233031e-01 -3.591050e-01 3.000628e+00 223 203 151
1.251104e-01 -3.554931e-01 3.000261e+00 94 94 36
-1.266863e-01 -3.569991e-01 3.000299e+00 219 202 151
-1.266863e-01 -3.569991e-01 3.000299e+00 219 202 151
8.425543e-02 -3.530937e-01 3.000224e+00 104 104 50
7.281321e-03 -3.508069e-01 3.000199e+00 83 90 39
-4.943157e-02 -3.405611e-01 3.000196e+00 195 189 143
3.050246e-01 -3.358712e-01 3.000537e+00 207 200 173
-1.788895e-01 -3.332822e-01 3.000330e+00 203 196 172
-1.788895e-01 -3.332822e-01 3.000330e+00 203 196 172
-9.356509e-02 -3.299836e-01 3.000209e+00 189 170 133
-4.908177e-01 -3.319428e-01 3.001268e+00 90 93 46
6.690715e-01 -3.255669e-01 3.001947e+00 28 22 7
6.548526e-01 -3.258369e-01 3.001873e+00 42 36 23
6.548526e-01 -3.258369e-01 3.001873e+00 42 36 23
-3.120432e-01 -3.255754e-01 3.000619e+00 206 198 161
-3.459507e-01 -3.245843e-01 3.000719e+00 223 197 150
4.670834e-01 -3.223405e-01 3.001026e+00 212 195 175
4.670834e-01 -3.223405e-01 3.001026e+00 212 195 175
1.060661e-01 -3.198475e-01 3.000176e+00 222 194 138
6.955551e-02 -3.158910e-01 3.000145e+00 249 210 158
-7.470950e-01 -3.105313e-01 3.002566e+00 134 138 111
8.673437e-01 -3.104836e-01 3.003080e+00 200 187 180
8.673437e-01 -3.104836e-01 3.003080e+00 200 187 180
4.788833e-01 -3.101463e-01 3.001053e+00 68 42 22
-4.729733e-01 -3.102657e-01 3.001159e+00 48 32 14
-6.297715e-01 -3.056113e-01 3.001894e+00 180 173 155
7.946077e-01 -3.029651e-01 3.002622e+00 145 140 136
7.770834e-01 -3.001672e-01 3.002515e+00 28 23 19
1.201424e-01 -3.005261e-01 3.000155e+00 224 202 153
1.201424e-01 -3.005261e-01 3.000155e+00 224 202 153
2.308398e-02 -3.003535e-01 3.000106e+00 213 198 156
-7.024260e-02 -2.997999e-01 3.000137e+00 220 202 157
6.474017e-01 -2.951874e-01 3.001794e+00 71 62 55
7.362932e-01 -2.932320e-01 3.002271e+00 32 29 12
-5.673872e-01 -2.866378e-01 3.001552e+00 157 155 140
-5.673872e-01 -2.866378e-01 3.001552e+00 157 155 140
-3.445342e-01 -2.830385e-01 3.000650e+00 95 82 63
-2.747216e-01 -2.813481e-01 3.000448e+00 87 56 39
7.150244e-01 -2.787881e-01 3.002136e+00 33 28 17
6.535727e-01 -2.792566e-01 3.001807e+00 233 221 201
6.535727e-01 -2.792566e-01 3.001807e+00 233 221 201
-1.223294e-01 -2.787026e-01 3.000156e+00 111 82 34
5.151448e-02 -2.382215e-01 3.000026e+00 209 194 152
-5.016044e-01 -2.388239e-01 3.001193e+00 83 73 52
-6.103122e-01 -2.420994e-01 3.001721e+00 58 40 17
-2.235519e-01 -2.370189e-01 3.000273e+00 208 189 177
-2.235519e-01 -2.370189e-01 3.000273e+00 208 189 177
-1.755771e-01 -2.314998e-01 3.000175e+00 217 216 215
6.165438e-01 -2.117844e-01 3.001561e+00 114 103 98
-6.126668e-01 -1.949303e-01 3.001701e+00 34 15 0
-6.126668e-01 -1.949303e-01 3.001701e+00 34 15 0
-4.199239e-01 -1.869063e-01 3.000818e+00 203 204 204
9.396255e-02 -1.788323e-01 2.999997e+00 20 19 3
7.125731e-02 -1.536765e-01 2.999970e+00 84 75 44
8.479909e-01 -1.468099e-01 3.002874e+00 80 53 15
6.878977e-01 -1.485982e-01 3.001914e+00 95 75 56
7.846523e-01 -1.394926e-01 3.002476e+00 100 82 49
7.846523e-01 -1.394926e-01 3.002476e+00 100 82 49
7.846523e-01 -1.394926e-01 3.002476e+00 100 82 49
6.829073e-01 -1.164656e-01 3.001889e+00 57 40 30
-8.501984e-01 -1.162665e-01 3.003139e+00 94 90 97
-4.358098e-01 -1.154381e-01 3.000861e+00 167 190 221
-8.593371e-01 -1.029016e-01 3.003206e+00 203 206 217
-6.687518e-01 -7.323309e-02 3.002012e+00 186 189 208
-8.564645e-01 -7.293651e-02 3.003202e+00 188 194 213
-8.774744e-01 -3.991431e-02 3.003375e+00 152 159 183
-7.936180e-01 -3.444594e-02 3.002810e+00 100 130 169
-8.091207e-01 -2.949203e-02 3.002917e+00 144 175 215
7.610043e-01 -1.090310e-02 3.002408e+00 222 213 219
7.965845e-01 -1.715745e-03 3.002638e+00 213 219 235
-7.979537e-01 8.575870e-02 3.003008e+00 156 189 222
-8.746376e-01 1.347687e-01 3.003636e+00 151 172 210
-8.746376e-01 1.347687e-01 3.003636e+00 151 172 210
-4.213266e-02 2.669177e-01 3.000623e+00 220 213 161
1.208943e-01 3.517568e-01 3.000993e+00 216 215 172
-6.476536e-04 9.381112e-03 -1.671781e-01 0 255 0
-6.637114e-04 9.574953e-03 -2.171777e-01 255 255 0
-6.476536e-04 9.381112e-03 -1.671781e-01 255 0 0
-6.637114e-04 9.574953e-03 -2.171777e-01 255 255 0
